ply
format ascii 1.0
element vertex 2294
property float x
property float y
property float z
end_header
2356.63 25.4995 2147
2373.37 25.5573 2144
2393.62 25.6519 2144
2409.59 25.7003 2140
2425.7 25.7496 2136
2437.39 25.7516 2128
2458.39 25.8513 2128
2472.64 25.8797 2122
2492.9 25.9702 2121
2511.01 26.038 2118
2532.9 26.1438 2118
2544.19 26.1399 2109
2555.57 26.1368 2100
2568.25 26.1471 2092
2582.28 26.171 2085
2597.69 26.2083 2079
2613.25 26.2472 2073
2625.17 26.2492 2064
2634.61 26.2263 2053
3900.04 38.3122 2958
3923.69 38.3759 2949
3957.03 38.5338 2947
3988.11 38.6679 2943
4012.77 38.7395 2934
4048.79 38.9196 2933
4078.37 39.0359 2927
4111.17 39.1824 2923
4138.76 39.2782 2915
4166.74 39.3768 2907
4200.9 39.5326 2903
4226.81 39.6098 2893
4254.56 39.7035 2884
4278.25 39.7585 2872
4300.77 39.8027 2859
4325.12 39.8628 2847
4355.97 39.9825 2839
4390.41 40.1339 2833
4420.73 40.2469 2824
-1000.65 12.7208 583
-1000.08 12.7637 589
-997.815 12.7853 594
-995.58 12.8074 599
-1013.1 13.0849 616
-1134.4 14.7102 697
-1161.36 15.1205 721
-1162.23 15.1929 729
-1161.48 15.2446 736
-1159.15 15.276 742
-1158.38 15.3283 749
-1160.65 15.4214 758
-1167.4 15.575 770
-1182.98 15.8483 788
-1193.77 16.0593 803
-1199.9 16.2091 815
-1201.5 16.2987 824
-1200.14 16.3487 831
-1200.19 16.4185 839
-1200.21 16.4885 847
-1201.58 16.5777 856
-1207.06 16.7247 868
-1219.29 16.9666 885
-1227.15 17.1497 899
-1229.41 17.2557 909
-1231.58 17.3615 919
-1208.43 17.1096 910
-1217.23 17.31 925
-849.266 12.2932 669
-849.295 12.3488 675
-846.792 12.3679 679
-844.295 12.3873 683
-841.803 12.407 687
-839.317 12.4269 691
-836.834 12.4471 695
-835.55 12.4852 700
-833.064 12.5058 704
-830.581 12.5266 708
-829.263 12.5652 713
-826.773 12.5864 717
-825.427 12.6252 722
-824.063 12.6641 727
-819.308 12.6512 729
-811.247 12.5866 728
-1176.34 18.6078 1092
-1176.09 18.6949 1101
-1176.83 18.799 1111
-1178.54 18.9195 1122
-1179.12 19.0231 1132
-1178.58 19.1097 1141
-1179.01 19.2128 1151
-1180.38 19.3324 1162
-1179.64 19.4184 1171
-1177.85 19.4878 1179
-1179.98 19.6234 1191
-1181.01 19.7419 1202
-1180.98 19.8439 1212
-1177.98 19.8966 1219
-1169.21 19.8518 1220
-1160.5 19.8079 1221
-1150.92 19.7483 1221
-1143.3 19.722 1223
-1144.06 19.8408 1234
-1142.9 19.9274 1243
-1131.66 19.838 1241
-1125.04 19.8293 1244
-1120.24 19.8528 1249
-1115.45 19.8767 1254
-1113.31 19.9481 1262
-1108.49 19.9722 1267
-1105.42 20.0283 1274
-1102.31 20.0843 1281
-1099.18 20.1404 1288
-1094.32 20.1654 1293
-1091.14 20.2219 1300
-1092.09 20.356 1312
-622.685 11.8102 767
-623.144 11.8886 774
-710.454 19.5343 1405
-708.424 19.6452 1415
-703.845 19.6866 1420
-699.247 19.7282 1425
-694.143 19.7562 1429
-689.99 19.8121 1435
-685.33 19.8541 1440
-681.121 19.9102 1446
-675.949 19.9388 1450
-670.765 19.9677 1454
-664.201 19.9555 1455
-659.009 19.9848 1459
-652.912 19.987 1461
-648.589 20.044 1467
-469.673 15.7134 1161
-462.304 15.6282 1156
-455 15.5433 1151
-449.322 15.5129 1150
-444.056 15.4961 1150
-438.807 15.4796 1150
-433.197 15.4499 1149
-428.358 15.4473 1150
-423.159 15.4315 1150
-417.974 15.4159 1150
-413.165 15.4139 1151
-408.716 15.4254 1153
-404.614 15.4506 1156
-400.501 15.4758 1159
-396.717 15.5145 1163
-393.248 15.5667 1168
-390.082 15.6324 1174
-387.86 15.7379 1183
-386.868 15.8966 1196
-184.829 8.00045 604
-180.399 7.91439 598
-176.92 7.86822 595
-173.765 7.83548 593
-170.923 7.81606 592
-168.096 7.79674 591
-165.563 7.79078 591
-162.76 7.77172 590
-160.243 7.76592 590
-157.732 7.76027 590
-155.225 7.75463 590
-152.466 7.736 589
-149.72 7.71755 588
-146.988 7.69911 587
-144.515 7.69395 587
-141.564 7.66267 585
-138.871 7.64459 584
-136.192 7.62668 583
-133.526 7.60886 582
-130.873 7.59113 581
-128.454 7.58656 581
-126.038 7.58206 581
-123.84 7.59074 582
-121.43 7.58639 582
-119.023 7.58218 582
-116.62 7.57805 582
-114.221 7.574 582
-111.826 7.57009 582
-109.623 7.57919 583
-107.231 7.57543 583
-104.842 7.57175 583
-102.457 7.56814 583
-100.248 7.57759 584
-97.8652 7.57414 584
-95.6495 7.58372 585
-93.4289 7.59344 586
-91.2032 7.60316 587
-88.9723 7.61301 588
-86.7362 7.62294 589
-84.4949 7.63286 590
-82.2482 7.64291 591
-79.996 7.65304 592
-77.8695 7.67624 594
-75.7294 7.69942 596
-73.5756 7.72266 598
-71.527 7.75888 601
-69.3417 7.78232 603
-67.2535 7.81865 606
-65.0364 7.84222 608
-63.0112 7.89156 612
-60.7582 7.91526 614
-58.491 7.93894 616
-56.3007 7.97566 619
-54.0882 8.01244 622
-51.6045 8.01057 622
-49.2805 8.03462 624
-47.017 8.07161 627
-44.6601 8.09579 629
-42.2887 8.12006 631
-40.0288 8.17013 635
-37.6793 8.20733 638
-35.252 8.23182 640
-32.9121 8.2821 644
-30.4943 8.31961 647
-28.0537 8.35718 650
-25.5117 8.36913 651
-22.9274 8.36831 651
-20.4376 8.40613 654
-17.9246 8.44404 657
-15.435 8.50773 662
-12.9062 8.5715 667
-10.3228 8.62251 671
-7.6852 8.6479 673
-5.02448 8.66053 674
-2.35949 8.68611 676
0.321759 8.72462 679
3.0268 8.76322 682
5.76413 8.81477 686
8.53336 8.86641 690
11.3509 8.931 695
14.2085 8.99569 700
17.0819 9.04762 704
20.0158 9.11251 709
22.9578 9.16466 713
26.0046 9.24261 719
29.14 9.33354 726
32.3319 9.42458 733
35.6286 9.5286 741
39.0419 9.64561 750
42.8643 9.83992 765
46.9874 10.073 783
51.1911 10.2935 800
55.26 10.4626 813
59.5061 10.6447 827
63.6379 10.7884 838
67.3798 10.855 843
70.9959 10.896 846
74.6383 10.9372 849
276.107 34.2634 2657
286.435 34.2345 2654
296.748 34.2056 2651
307.163 34.1903 2649
317.571 34.1751 2647
328.346 34.1992 2648
338.499 34.1591 2644
348.762 34.1322 2641
358.605 34.0669 2635
369.251 34.0794 2635
379.333 34.0406 2631
389.691 34.0279 2629
400.045 34.0156 2627
410.084 33.978 2623
420.263 33.9534 2620
430.762 33.9553 2619
441.434 33.9702 2619
451.949 33.9728 2618
462.47 33.9758 2617
472.998 33.979 2616
482.794 33.9307 2611
493.132 33.9219 2609
503.083 33.8871 2605
513.216 33.8659 2602
523.14 33.8321 2598
533.664 33.8375 2597
543.36 33.7912 2592
553.673 33.7843 2590
564.642 33.8171 2591
574.751 33.7981 2588
584.853 33.779 2585
594.95 33.7609 2582
605.747 33.782 2582
615.847 33.7642 2579
625.7 33.7338 2575
636.53 33.7562 2575
646.627 33.7399 2572
655.955 33.6842 2566
663.175 33.5239 2552
670.563 33.3768 2539
677.059 33.1904 2523
683.988 33.0306 2509
689.714 32.8179 2491
693.341 32.5135 2466
691.926 31.9842 2424
696.26 31.7321 2403
703.084 31.5987 2391
712.216 31.5713 2387
721.944 31.5708 2385
733.829 31.6634 2390
746.096 31.7696 2396
772.019 32.4473 2445
788.473 32.7146 2463
802.193 32.863 2472
813.391 32.9059 2473
822.292 32.8559 2467
830.158 32.7663 2458
827.709 32.2766 2419
805.88 31.0517 2325
809.925 30.841 2307
817.396 30.764 2299
825.544 30.7142 2293
834.763 30.7047 2290
844.356 30.7089 2288
854.335 30.727 2287
865.094 30.7727 2288
877.424 30.8725 2293
890.995 31.0133 2301
905.066 31.1684 2310
916.478 31.2295 2312
925.137 31.1966 2307
933.379 31.1504 2301
942.423 31.1317 2297
951.051 31.0997 2292
959.669 31.0681 2287
969.551 31.0775 2285
981.169 31.142 2287
991.542 31.1659 2286
1001.95 31.1904 2285
1011.05 31.1745 2281
1021.05 31.1863 2279
1030.62 31.1848 2276
1041.12 31.2111 2275
1052.12 31.2517 2275
1063.16 31.2926 2275
1074.24 31.3342 2275
1084.88 31.3624 2274
1094.6 31.3638 2271
1104.34 31.3652 2268
1115.07 31.3952 2267
1126.34 31.4393 2267
1136.65 31.4563 2265
1150.54 31.571 2270
1161.46 31.603 2269
1169.83 31.5659 2263
1178.19 31.5289 2257
1187.07 31.5063 2252
1195.41 31.4699 2246
1205.9 31.4904 2244
1216.96 31.5252 2243
1225.87 31.5041 2238
1238.66 31.5825 2240
1248.73 31.5907 2237
1258.26 31.5854 2233
1267.24 31.5662 2228
1272.78 31.4622 2217
1277.68 31.3443 2205
1283.68 31.255 2195
1289.63 31.1656 2185
1297.91 31.1337 2179
1308 31.1451 2176
1317.5 31.1427 2172
1328.25 31.1693 2170
1339.66 31.211 2169
1353.61 31.311 2172
1368.92 31.4406 2177
1388.79 31.6727 2189
1419.75 32.1524 2218
1438.19 32.344 2227
1445.73 32.2896 2219
1453.25 32.2352 2211
1466.05 32.2981 2211
1476.92 32.3179 2208
1489.18 32.3676 2207
1510.35 32.6092 2219
1532.43 32.8668 2232
1553.36 33.0968 2243
1570.31 33.2394 2248
1582.47 33.2794 2246
1586.87 33.1569 2233
1586.9 32.9449 2214
1588.23 32.7627 2197
1610.36 32.8016 2190
1649.55 32.9783 2187
1662.02 33.0235 2185
1679.92 33.1756 2190
1694.11 33.2535 2190
1701.38 33.1951 2181
1722 33.3964 2189
1739.66 33.5381 2193
1753.47 33.6046 2192
1777.87 33.8715 2204
1806.59 34.2177 2221
1827.46 34.4119 2228
1840.25 34.4526 2225
1846.45 34.3699 2214
1835.8 33.9763 2183
1812.1 33.3476 2137
1798.14 32.9036 2103
1795.87 32.6777 2083
1798.65 32.5455 2069
1810.11 32.571 2065
1826.94 32.6923 2067
1845.7 32.8463 2071
1870.03 33.0976 2081
1896.45 33.3829 2093
1917.7 33.5747 2099
1931.8 33.6395 2097
1942.29 33.6415 2091
1952.82 33.6442 2085
1972.84 33.8092 2089
1997.83 34.0574 2098
2032.71 34.4707 2117
2088.38 35.2303 2157
2139.96 35.9132 2192
2161.75 36.0921 2196
2175.83 36.1409 2192
2190.01 36.191 2188
2205.3 36.2588 2185
2220.72 36.3279 2182
2235.24 36.3817 2178
2250.9 36.4534 2175
2267.74 36.5437 2173
2280.52 36.5677 2167
2294.45 36.61 2162
2309.56 36.6701 2158
2325.87 36.7491 2155
2341.24 36.8124 2151
2356.74 36.8771 2147
2372.38 36.9433 2143
2390.39 37.0459 2141
2405.2 37.0978 2136
2423.55 37.2037 2134
2437.51 37.2415 2128
2459.67 37.4036 2129
2475.1 37.4626 2124
2494.2 37.5758 2122
2511.13 37.6558 2118
2531.83 37.7915 2117
2543.12 37.7857 2108
2556.92 37.8173 2101
2567.16 37.7961 2091
2583.65 37.8667 2086
2599.08 37.9212 2080
2614.66 37.9774 2074
2625.31 37.9621 2064
2638.61 37.9848 2056
3900.26 55.4083 2958
3925.25 55.5195 2950
3954.57 55.6909 2945
3988.34 55.9236 2943
4010.27 55.9887 2932
4042.13 56.1909 2928
4074.43 56.3978 2924
4107.19 56.6096 2920
4134.75 56.7478 2912
4159.83 56.8511 2902
4193.92 57.076 2898
4218.31 57.1676 2887
4253.35 57.4019 2883
4277.03 57.4818 2871
4304.05 57.6059 2861
4333 57.7547 2852
4363.93 57.9283 2844
4396.9 58.1276 2837
4425.72 58.2708 2827
4455.01 58.4185 2817
-999.033 16.619 582
-998.479 16.6753 588
-994.555 16.6755 592
-994.015 16.7328 598
-1000.04 16.9014 608
-1116.61 18.947 686
-1159.86 19.7601 720
-1163.94 19.9096 730
-1161.59 19.95 736
-1159.25 19.991 742
-1158.48 20.0593 749
-1162.29 20.2079 759
-1167.5 20.3821 770
-1180.08 20.687 786
-1193.88 21.0159 803
-1198.53 21.1858 814
-1200.14 21.303 823
-1198.79 21.3687 830
-1196 21.409 836
-1194.64 21.4754 843
-1196.07 21.5927 852
-1201.6 21.7854 864
-1212.5 22.0775 880
-1223.15 22.3676 896
-1218.68 22.3825 901
-1212.91 22.3733 905
-1200.55 22.2422 904
-1196.27 22.2602 909
-1189.41 22.2302 912
-848.06 16.0629 668
-848.099 16.1357 674
-845.606 16.1608 678
-843.12 16.1863 682
-840.638 16.2121 686
-839.377 16.2617 691
-836.894 16.2881 695
-834.415 16.3148 699
-831.939 16.3417 703
-829.465 16.369 707
-826.993 16.3965 711
-824.523 16.4244 715
-825.483 16.5212 722
-824.118 16.5721 727
-818.239 16.5323 728
-809.072 16.4254 726
-1201.2 24.8625 1115
-1196.46 24.8859 1120
-1193.85 24.954 1127
-1193.32 25.0666 1136
-1191.69 25.1569 1144
-1190.02 25.2474 1152
-1189.33 25.3596 1161
-1185.53 25.4066 1167
-1179.72 25.4103 1171
-1177.92 25.5011 1179
-1175.09 25.5705 1186
-1162.42 25.4251 1183
-1158.64 25.4741 1189
-1162.59 25.6942 1203
-1150.11 25.5515 1200
-1144.41 25.5589 1204
-1144.39 25.6938 1214
-1135.89 25.6385 1215
-1131.15 25.6684 1220
-1128.26 25.7404 1227
-1120.78 25.7082 1229
-1116.96 25.76 1235
-1114.93 25.8537 1243
-1110.18 25.8852 1248
-1109.84 26.0204 1258
-1106.81 26.0934 1265
-1105.48 26.2079 1274
-1103.23 26.3017 1282
-1100.95 26.3956 1290
-1096.07 26.4283 1295
-1092.88 26.5019 1302
-1092.99 26.657 1313
-625.155 15.5147 770
-624.788 15.597 776
-623.58 15.6589 781
-702.949 25.5062 1404
-700.904 25.6515 1414
-697.807 25.7605 1422
-692.717 25.7972 1426
-690.021 25.9244 1435
-685.361 25.9794 1440
-681.151 26.0528 1446
-675.979 26.0903 1450
-671.718 26.1639 1456
-663.774 26.0942 1454
-659.039 26.1504 1459
-654.281 26.207 1464
-462.325 20.4497 1156
-455.415 20.3563 1152
-449.732 20.3164 1151
-444.075 20.2768 1150
-438.826 20.2553 1150
-433.216 20.2163 1149
-428.377 20.2129 1150
-423.177 20.1922 1150
-418.356 20.1893 1151
-413.9 20.2043 1153
-409.442 20.2193 1155
-404.982 20.2347 1157
-400.518 20.2503 1159
-397.075 20.3185 1164
-393.265 20.3692 1168
-390.098 20.455 1174
-387.549 20.5758 1182
-387.207 20.8183 1197
-193.05 10.7897 622
-183.918 10.4166 601
-180.406 10.3561 598
-176.927 10.2956 595
-173.773 10.2527 593
-170.642 10.2101 591
-168.103 10.2021 591
-165.29 10.1771 590
-162.767 10.1693 590
-160.25 10.1618 590
-157.738 10.1543 590
-155.232 10.147 590
-152.472 10.1227 589
-149.726 10.0985 588
-147.244 10.0915 588
-144.521 10.0676 587
-141.811 10.0438 586
-139.115 10.0202 585
-136.198 9.97955 583
-133.532 9.95617 582
-130.878 9.93299 581
-128.459 9.92702 581
-126.044 9.92115 581
-123.633 9.91544 581
-121.226 9.90977 581
-119.028 9.92131 582
-116.625 9.9159 582
-114.226 9.91066 582
-111.83 9.90545 582
-109.439 9.90041 582
-107.235 9.91247 583
-104.847 9.90763 583
-102.461 9.90288 583
-100.252 9.91529 584
-97.8691 9.91081 584
-95.6534 9.92332 585
-93.4326 9.93599 586
-91.2068 9.94882 587
-88.9759 9.96167 588
-86.7397 9.9746 589
-84.4983 9.98769 590
-82.2514 10.0008 591
-80.1344 10.031 593
-77.8726 10.0444 594
-75.7324 10.0747 596
-73.5785 10.1051 598
-71.5299 10.1526 601
-69.4594 10.2 604
-67.3671 10.2476 607
-65.1459 10.2784 609
-63.0137 10.3261 612
-60.8595 10.3739 615
-58.4933 10.3882 616
-56.3029 10.4362 619
-54.0903 10.4843 622
-51.6895 10.4988 623
-49.3614 10.5302 625
-47.0938 10.5785 628
-44.6619 10.5933 629
-42.3574 10.6419 632
-40.0934 10.7075 636
-37.7398 10.7562 639
-35.3084 10.7882 641
-32.9645 10.854 645
-30.5427 10.9031 648
-28.098 10.9522 651
-25.552 10.9679 652
-22.9636 10.9668 652
-20.4384 10.9994 654
-17.9253 11.049 657
-15.4356 11.1324 662
-12.9068 11.2158 667
-10.3232 11.2826 671
-7.6855 11.3158 673
-5.02468 11.3323 674
-2.35958 11.3658 676
0.321771 11.4162 679
3.02692 11.4667 682
5.76436 11.5341 686
8.53369 11.6017 690
11.3513 11.6862 695
14.1887 11.7541 699
17.0825 11.8388 704
20.0165 11.9237 709
22.9265 11.9752 712
26.0056 12.094 719
29.1411 12.213 726
32.289 12.3153 732
35.5819 12.4514 740
38.9394 12.5876 748
42.7539 12.8419 763
46.8692 13.147 781
51.0651 13.4353 798
55.1262 13.6566 811
59.2926 13.8781 824
63.5644 14.0997 837
67.3824 14.2038 843
71.0826 14.2743 847
74.6412 14.3112 849
276.534 44.9012 2661
286.879 44.8634 2658
296.984 44.7919 2653
307.407 44.7718 2651
317.704 44.7352 2648
328.359 44.7498 2648
338.384 44.6803 2643
348.908 44.6789 2642
358.755 44.5933 2636
369.266 44.593 2635
379.492 44.559 2632
389.854 44.5424 2630
400.061 44.5096 2627
409.944 44.4433 2622
420.441 44.4452 2621
431.108 44.4645 2621
441.789 44.4842 2621
452.312 44.4878 2620
462.842 44.4914 2619
473.017 44.4619 2616
482.999 44.4157 2612
493.341 44.4039 2610
503.104 44.3415 2605
513.237 44.3139 2602
523.362 44.2863 2599
533.685 44.2765 2597
543.801 44.25 2594
554.123 44.2413 2592
565.101 44.2839 2593
574.996 44.2419 2589
585.33 44.2344 2587
595.436 44.2105 2584
606.241 44.2381 2584
616.35 44.215 2581
626.941 44.2269 2580
637.051 44.2046 2577
647.157 44.183 2574
656.237 44.0931 2567
663.982 43.9178 2555
670.591 43.6738 2539
677.356 43.4472 2524
683.744 43.2033 2508
689.465 42.9253 2490
693.37 42.5441 2466
691.099 41.7997 2421
696.868 41.556 2405
703.701 41.3818 2393
712.842 41.346 2389
722.579 41.3452 2387
733.86 41.4318 2390
748.618 41.7097 2404
772.367 42.4749 2446
789.147 42.8421 2465
802.877 43.0367 2474
814.083 43.0927 2475
822.66 43.0097 2468
830.531 42.8927 2459
823.98 42.0422 2408
805.221 40.5966 2323
810.662 40.3908 2309
817.786 40.2726 2300
826.3 40.2248 2295
835.164 40.1948 2291
844.761 40.2005 2289
855.119 40.242 2289
865.887 40.3015 2290
877.462 40.397 2293
892.195 40.6341 2304
905.105 40.784 2310
916.914 40.8819 2313
926.38 40.8742 2310
935.043 40.8316 2305
943.285 40.7716 2299
952.338 40.7475 2295
960.97 40.7062 2290
969.594 40.6655 2285
980.783 40.7318 2286
992.02 40.799 2287
1001.99 40.8133 2285
1011.54 40.8101 2282
1021.55 40.8255 2280
1031.58 40.8414 2278
1041.17 40.8401 2275
1052.63 40.911 2276
1063.67 40.965 2276
1075.23 41.0375 2277
1085.41 41.0564 2275
1096.1 41.0943 2274
1105.36 41.0783 2270
1116.11 41.1172 2269
1126.89 41.1569 2268
1137.21 41.1792 2266
1150.59 41.3113 2270
1162.02 41.3712 2270
1171.43 41.3593 2266
1179.81 41.311 2260
1191.34 41.3731 2260
1199.19 41.3076 2253
1209.18 41.316 2250
1218.1 41.2883 2245
1225.93 41.2239 2238
1237.06 41.271 2237
1247.67 41.3001 2235
1257.76 41.3117 2232
1266.16 41.268 2226
1271.69 41.132 2215
1277.16 40.9961 2204
1283.15 40.8791 2194
1290.28 40.7998 2186
1298.57 40.7581 2180
1308.06 40.7542 2176
1318.17 40.7698 2173
1328.31 40.786 2170
1340.96 40.878 2171
1356.17 41.0466 2176
1374.64 41.311 2186
1399.01 41.7474 2205
1432.62 42.4516 2238
1450.53 42.6841 2246
1453.62 42.4802 2231
1457.92 42.3143 2218
1469.44 42.3586 2216
1483.01 42.4613 2217
1498.7 42.623 2221
1522.68 43.0164 2237
1542.81 43.2965 2247
1562.44 43.5591 2256
1573.88 43.5916 2253
1583.25 43.5665 2247
1580.56 43.212 2224
1577.66 42.8564 2201
1577.46 42.5783 2182
1586.59 42.5539 2176
1595.74 42.5301 2170
1607.86 42.5855 2168
1622.29 42.7009 2169
1633.05 42.7189 2165
1643.09 42.7182 2160
1657.76 42.8369 2161
1671.77 42.9373 2161
1679.63 42.8795 2153
1698.5 43.1017 2159
1714.37 43.2456 2161
1721.57 43.1704 2152
1741.66 43.4176 2159
1778.22 44.0696 2186
1806.23 44.5037 2202
1825.47 44.7179 2207
1838.22 44.7715 2204
1826.65 44.2358 2172
1808.81 43.555 2133
1797.38 43.0354 2102
1796.83 42.7807 2084
1799.62 42.608 2070
1810.21 42.6207 2065
1828.81 42.8208 2069
1848.48 43.0436 2074
1873.73 43.3932 2085
1900.18 43.7669 2097
1920.55 43.9971 2102
1932.83 44.0405 2098
1943.33 44.0429 2092
1953.87 44.0465 2086
1973.91 44.2627 2090
1997.95 44.5662 2098
2035.72 45.171 2120
2091.41 46.1651 2160
2140.08 46.9948 2192
2158.93 47.1644 2193
2175.96 47.2928 2192
2191.15 47.3798 2189
2208.47 47.5121 2188
2222.9 47.581 2184
2237.43 47.6517 2180
2252.08 47.7239 2176
2266.84 47.7977 2172
2282.78 47.8954 2169
2295.66 47.9288 2163
2312.92 48.0525 2161
2330.34 48.1781 2159
2346.83 48.2838 2156
2359.09 48.3014 2149
2371.43 48.3207 2142
2384.96 48.3639 2136
2398.61 48.409 2130
2416.9 48.5473 2128
2433.09 48.642 2124
2456.37 48.877 2126
2477.6 49.069 2126
2499.07 49.2641 2126
2514.87 49.3461 2121
2534.4 49.5002 2119
2545.71 49.4931 2110
2555.89 49.4637 2100
2566.12 49.4363 2090
2583.84 49.5525 2086
2600.52 49.6477 2081
2617.37 49.7452 2076
2628.05 49.7254 2066
3901.87 72.532 2959
3929.54 72.7275 2953
3961.59 73.0021 2950
3992.72 73.2569 2946
4011.96 73.2924 2933
4041.07 73.5077 2927
4069.19 73.7026 2920
4106.12 74.0548 2919
4132.26 74.2106 2910
4164.47 74.4733 2905
4200.06 74.7943 2902
4227.43 74.9669 2893
4256.67 75.1703 2885
4278.89 75.2491 2872
4302.93 75.3595 2860
4333.38 75.5802 2852
4362.78 75.7813 2843
4403.5 76.1757 2841
4435.52 76.4175 2833
-997.445 20.505 581
-996.908 20.5747 587
-993 20.5752 591
-992.477 20.6461 597
-995.232 20.786 605
-1092.32 22.9053 671
-1158.39 24.3883 719
-1164.08 24.6069 730
-1163.3 24.6903 737
-1160.95 24.7406 743
-1158.61 24.7918 749
-1160.89 24.9424 758
-1166.11 25.1579 769
-1177.21 25.5026 784
-1189.55 25.8768 800
-1194.24 26.0873 811
-1195.89 26.2327 820
-1193.14 26.2825 826
-1193.26 26.3963 834
-1190.51 26.4471 840
-1191.98 26.5925 849
-1193.38 26.7376 858
-1194.71 26.8824 867
-1187.78 26.8418 870
-1187.69 26.9561 878
-1182.2 26.9483 882
-1182.08 27.0634 890
-1181.91 27.1783 898
-1181.7 27.2932 906
-849.409 19.8815 669
-849.437 19.9714 675
-845.684 19.9729 678
-844.433 20.0336 683
-841.94 20.0654 687
-840.667 20.1266 692
-839.378 20.188 697
-839.265 20.2784 703
-834.379 20.2538 705
-834.231 20.3444 711
-829.392 20.321 713
-826.901 20.3552 717
-826.698 20.4462 723
-824.189 20.481 727
-814.936 20.3476 725
-805.797 20.2157 723
-1215.3 31.0848 1128
-1206.17 31.0025 1129
-1199.25 30.9764 1132
-1197.62 31.0879 1140
-1186.58 30.9544 1139
-1181.85 30.9854 1144
-1183.28 31.1788 1155
-1176.48 31.1567 1158
-1159.66 30.8672 1151
-1157.03 30.9544 1158
-1155.37 31.0686 1166
-1160.54 31.3687 1181
-1151.91 31.2968 1182
-1145.28 31.2791 1185
-1142.53 31.3673 1192
-1134.04 31.2984 1193
-1132.22 31.4136 1201
-1128.49 31.4767 1207
-1125.67 31.5662 1214
-1122.82 31.6557 1221
-1119.95 31.7455 1228
-1117.04 31.8353 1235
-1116.8 32.0025 1245
-1114.71 32.1182 1253
-1115.22 32.3105 1264
-1112.14 32.4003 1271
-1110.77 32.5415 1280
-1110.2 32.7076 1290
-1108.71 32.8483 1299
-1106.31 32.9637 1307
-1107.23 33.1797 1319
-1107.22 33.3703 1330
-628.052 19.3746 780
-624.421 19.3767 782
-693.508 31.3642 1399
-693.921 31.6562 1414
-688.384 31.6793 1417
-688.137 31.9484 1431
-683.972 32.0388 1437
-681.19 32.1964 1446
-675.551 32.2205 1449
-672.679 32.3781 1458
-662.899 32.2031 1452
-462.35 25.2718 1156
-455.44 25.1566 1152
-449.366 25.0854 1150
-444.486 25.0801 1151
-438.85 25.0317 1150
-433.24 24.9835 1149
-428.4 24.9794 1150
-423.568 24.9755 1151
-418.378 24.9501 1151
-413.923 24.9686 1153
-409.464 24.9873 1155
-405.354 25.0278 1158
-401.231 25.0686 1161
-397.437 25.1313 1165
-393.623 25.1939 1169
-390.452 25.3 1175
-388.225 25.4707 1184
-388.199 25.7919 1200
-188.714 13.0338 608
-183.928 12.8729 601
-180.114 12.7767 597
-176.936 12.7234 595
-173.782 12.6705 593
-170.651 12.6177 591
-167.827 12.5865 590
-165.298 12.5768 590
-162.775 12.5673 590
-160.258 12.558 590
-157.746 12.5488 590
-154.977 12.5184 589
-152.221 12.4884 588
-149.734 12.4797 588
-147.252 12.4712 588
-144.529 12.4415 587
-141.819 12.4121 586
-139.122 12.383 585
-136.205 12.3327 583
-133.539 12.3039 582
-131.11 12.2964 582
-128.465 12.2679 581
-126.05 12.2606 581
-123.852 12.2746 582
-121.441 12.2676 582
-119.034 12.2608 582
-116.631 12.2541 582
-114.428 12.2686 583
-112.028 12.2622 583
-109.633 12.256 583
-107.24 12.2498 583
-104.852 12.2439 583
-102.467 12.2381 583
-100.257 12.2533 584
-98.0416 12.2688 585
-95.6582 12.2633 585
-93.4374 12.2789 586
-91.2115 12.2947 587
-88.9804 12.3106 588
-86.7441 12.3266 589
-84.5025 12.3428 590
-82.2556 12.359 591
-80.0033 12.3754 592
-77.8765 12.4128 594
-75.7362 12.4503 596
-73.5822 12.4879 598
-71.5335 12.5465 601
-69.4629 12.6052 604
-67.3705 12.664 607
-65.2562 12.7229 610
-63.1199 12.7819 613
-60.9616 12.841 616
-58.5912 12.8585 617
-56.3967 12.9178 620
-54.18 12.9773 623
-51.7751 12.9952 624
-49.3639 13.0132 625
-47.0962 13.073 628
-44.7351 13.1121 630
-42.4266 13.1721 633
-40.0954 13.2322 636
-37.7417 13.2925 639
-35.3102 13.3321 641
-32.9662 13.4133 645
-30.5442 13.474 648
-28.0994 13.5347 651
-25.5532 13.5541 652
-22.9999 13.5735 653
-20.4707 13.6139 655
-17.9535 13.6752 658
-15.4597 13.7782 663
-12.9074 13.8605 667
-10.3238 13.943 671
-7.68588 13.9841 673
-5.02493 14.0045 674
-2.3597 14.0458 676
0.321786 14.1081 679
3.03151 14.1913 683
5.76464 14.2539 686
8.53412 14.3374 690
11.3519 14.4418 695
14.2097 14.5464 700
17.0834 14.6304 704
19.9893 14.7146 708
22.9276 14.7989 712
25.9707 14.925 718
29.1024 15.072 725
32.2906 15.2192 732
35.5356 15.3666 739
38.8372 15.5142 746
42.5879 15.8077 760
46.6915 16.1846 778
50.9397 16.5617 796
55.061 16.856 810
59.2236 17.1297 823
63.4157 17.3829 835
67.3059 17.5322 842
71.0023 17.6193 846
74.645 17.6859 849
78.2221 17.7317 851
277.068 55.5932 2666
287.432 55.5464 2663
297.447 55.4375 2657
307.655 55.3709 2653
318.08 55.3465 2651
328.499 55.3227 2649
338.529 55.2368 2644
349.058 55.2349 2643
359.045 55.1503 2638
369.565 55.1499 2637
379.656 55.0869 2633
390.171 55.0875 2632
400.234 55.0259 2628
410.59 55.0066 2626
420.783 54.9673 2623
431.294 54.97 2622
441.98 54.9946 2622
452.508 54.9988 2621
463.042 55.0035 2620
473.403 54.9881 2618
483.393 54.9308 2614
493.744 54.9164 2612
503.709 54.8604 2608
513.46 54.7839 2603
523.389 54.7292 2599
533.713 54.717 2597
544.038 54.7054 2595
554.579 54.7154 2594
565.348 54.7473 2594
575.47 54.7165 2591
586.039 54.7283 2590
596.388 54.7199 2588
606.741 54.7119 2586
617.337 54.7257 2585
627.702 54.7191 2583
637.825 54.6917 2580
647.945 54.6652 2577
657.294 54.5755 2571
664.016 54.2736 2555
671.154 54.0147 2541
677.928 53.7347 2526
684.325 53.4334 2510
689.778 53.0685 2491
692.844 52.5333 2464
691.992 51.7204 2424
697.484 51.3981 2407
704.326 51.1826 2395
713.178 51.1169 2390
723.223 51.1375 2389
735.127 51.2874 2394
749.904 51.631 2408
773.04 52.5335 2448
790.79 53.052 2470
803.244 53.2065 2475
814.784 53.2971 2477
823.371 53.1949 2470
830.237 52.9854 2458
821.629 51.805 2401
803.878 50.0833 2319
811.057 49.937 2310
818.541 49.8125 2302
826.704 49.7318 2296
836.303 49.7384 2294
845.914 49.7453 2292
856.286 49.7965 2292
867.447 49.8919 2294
878.658 49.9883 2296
892.632 50.2378 2305
904.762 50.3794 2309
916.172 50.4784 2311
925.228 50.4471 2307
935.5 50.4818 2306
944.978 50.4735 2303
954.05 50.4442 2299
961.863 50.3493 2292
970.921 50.3206 2288
982.125 50.4029 2289
992.076 50.4199 2287
1002.48 50.4595 2286
1012.92 50.5001 2285
1022.95 50.5191 2283
1032.54 50.5167 2280
1042.6 50.5372 2278
1053.15 50.5806 2277
1063.73 50.6249 2276
1074.35 50.6699 2275
1084.52 50.6935 2273
1094.71 50.7178 2271
1104.94 50.7428 2269
1115.68 50.791 2268
1126.95 50.8625 2268
1137.77 50.9124 2267
1150.66 51.0531 2270
1161.07 51.0823 2268
1169.43 51.0221 2262
1176.75 50.9172 2254
1188.77 51.0163 2255
1198.2 51.0034 2251
1207.64 50.9908 2247
1217.09 50.9792 2243
1227.1 50.9908 2240
1238.24 51.0489 2239
1247.75 51.0395 2235
1257.27 51.0307 2231
1265.67 50.9768 2225
1271.19 50.8087 2214
1276.08 50.618 2202
1283.23 50.5192 2194
1290.36 50.421 2186
1298.65 50.3694 2180
1308.74 50.3878 2177
1318.86 50.4072 2174
1329.01 50.4271 2171
1341.04 50.5179 2171
1356.87 50.7496 2177
1374.1 51.0299 2185
1399.73 51.6158 2206
1439.11 52.6972 2248
1458.37 53.0319 2258
1458.92 52.6862 2239
1461.3 52.411 2223
1471.52 52.4189 2219
1486.45 52.5933 2222
1502.85 52.8166 2227
1531.63 53.4696 2250
1550.46 53.7688 2258
1568.08 54.0224 2264
1573.98 53.8716 2253
1579.13 53.697 2241
1572.84 53.1383 2213
1571.31 52.7467 2192
1573.95 52.4989 2177
1583.05 52.4687 2171
1589.96 52.3661 2162
1601.29 52.4099 2159
1612.67 52.4549 2156
1622.6 52.4522 2151
1634.83 52.5236 2149
1649.43 52.6699 2150
1663.37 52.7932 2150
1674.28 52.8194 2146
1691.53 53.0443 2150
1705.76 53.1725 2150
1712.89 53.079 2141
1729.68 53.2842 2144
1758 53.84 2161
1785.02 54.3501 2176
1805.74 54.6631 2183
1822.5 54.8534 2185
1813.32 54.2656 2156
1801.31 53.6 2124
1794.94 53.1091 2099
1795.24 52.8196 2082
1798.88 52.6311 2069
1811.22 52.6979 2066
1830.71 52.9708 2071
1853.07 53.3232 2079
1876.56 53.7045 2088
1903.95 54.1921 2101
1925.26 54.5026 2107
1935.74 54.505 2101
1946.26 54.5083 2095
1956.83 54.513 2089
1976.89 54.7805 2093
2001.91 55.1821 2102
2040.67 55.9559 2125
2096.41 57.1852 2165
2140.25 58.0788 2192
2158.11 58.2614 2192
2174.14 58.3934 2190
2191.32 58.5545 2189
2208.64 58.7181 2188
2224.09 58.8305 2185
2238.64 58.9177 2181
2252.26 58.98 2176
2264.94 59.0168 2170
2279.8 59.1104 2166
2288.42 59.0415 2156
2304.54 59.1662 2153
2321.89 59.3209 2151
2339.41 59.4783 2149
2352.7 59.5272 2143
2363.87 59.5227 2135
2374 59.4916 2126
2389.8 59.6027 2122
2409.16 59.8007 2121
2426.43 59.9453 2118
2453.12 60.3202 2123
2477.82 60.6431 2126
2496.94 60.8269 2124
2512.72 60.9279 2119
2534.63 61.1759 2119
2547.15 61.1964 2111
2559.77 61.2186 2103
2570.04 61.185 2093
2589.04 61.3582 2090
2604.51 61.4469 2084
2621.4 61.5681 2079
2633.39 61.5739 2070
3927.31 90.2173 2978
3953.88 90.4313 2971
3978.1 90.5895 2962
4010.74 90.9377 2959
4026.05 90.8909 2943
4053.91 91.1276 2936
4082.15 91.3698 2929
4117.8 91.7761 2927
4142.63 91.9377 2917
4176.38 92.2961 2913
4210.64 92.6623 2909
4235.19 92.8123 2898
4263.04 93.0331 2889
4286.81 93.1639 2877
4309.43 93.2679 2864
4342.99 93.6079 2858
4369.42 93.7915 2847
4405.55 94.1806 2842
4439.17 94.5136 2835
4465.44 94.6876 2823
-995.884 24.3792 580
-993.664 24.4208 585
-991.471 24.4632 590
-989.301 24.5068 595
-990.444 24.6329 602
-1058.29 26.4258 650
-1152.11 28.8842 715
-1161.05 29.2258 728
-1161.89 29.3655 736
-1159.55 29.4256 742
-1158.78 29.5262 749
-1159.52 29.6662 757
-1164.76 29.9232 768
-1172.87 30.2561 781
-1185.24 30.7025 797
-1192.93 31.0303 810
-1194.59 31.2039 819
-1193.3 31.3012 826
-1191.99 31.3988 833
-1189.24 31.4594 839
-1186.51 31.5209 845
-1185.18 31.6201 852
-1183.83 31.7199 859
-1183.82 31.8566 867
-1182.42 31.9568 874
-1182.34 32.0937 882
-1183.55 32.2668 891
-1179.42 32.2954 896
-1181.84 32.5043 906
-846.966 23.6066 667
-847.016 23.7139 673
-844.532 23.751 677
-843.291 23.8235 682
-844.485 23.9658 689
-841.974 24.0037 693
-839.469 24.0422 697
-840.549 24.1841 704
-834.469 24.1204 705
-831.973 24.1603 709
-829.48 24.2005 713
-825.834 24.2074 716
-824.497 24.2823 721
-824.274 24.3909 727
-813.895 24.1985 724
-802.535 23.975 720
-1208.96 36.8218 1122
-1194.54 36.5611 1118
-1194.07 36.7268 1127
-1179.88 36.4703 1123
-1167.94 36.281 1121
-1178.86 36.8038 1141
-1162.9 36.4878 1135
-1163.39 36.6877 1145
-1146.67 36.3443 1138
-1140.15 36.3221 1141
-1134.67 36.3328 1145
-1133.13 36.4709 1153
-1132.53 36.6404 1162
-1131.86 36.8098 1171
-1132.09 37.0102 1181
-1131.3 37.1791 1190
-1132.33 37.4101 1201
-1131.4 37.5783 1210
-1128.56 37.6845 1217
-1125.68 37.7908 1224
-1126.43 38.0206 1235
-1122.57 38.0962 1241
-1122.28 38.2949 1251
-1122.81 38.5237 1262
-1124.14 38.7824 1274
-1126.24 39.0707 1287
-1129.96 39.419 1302
-1130.95 39.6754 1314
-1130.14 39.8713 1324
-1131.8 40.1569 1337
-1128.31 40.2619 1344
-1121.46 40.2478 1347
-624.883 22.9543 776
-620.48 22.9276 777
-616.893 22.9308 779
-680.971 37.6471 1416
-676.879 37.7552 1422
-676.055 38.0495 1435
-668.604 37.9726 1434
-666.727 38.2137 1445
-468.132 30.1548 1157
-460.381 29.9648 1151
-454.284 29.8796 1149
-448.614 29.821 1148
-443.743 29.8148 1149
-438.497 29.7829 1149
-433.645 29.7775 1150
-428.428 29.7466 1150
-423.595 29.7419 1151
-418.769 29.7376 1152
-414.309 29.7596 1154
-409.846 29.7817 1156
-405.38 29.8042 1158
-401.602 29.8786 1162
-397.804 29.953 1166
-393.985 30.0277 1170
-390.809 30.154 1176
-388.251 30.3317 1184
-388.224 30.714 1200
-187.174 15.3937 603
-183.328 15.2787 599
-179.824 15.1895 596
-176.65 15.1261 594
-173.5 15.0631 592
-170.662 15.0257 591
-167.838 14.9886 590
-165.309 14.9771 590
-162.786 14.9657 590
-160.268 14.9546 590
-157.489 14.9183 589
-154.987 14.9076 589
-152.231 14.8717 588
-149.743 14.8613 588
-147.011 14.8259 587
-144.291 14.7907 586
-141.828 14.7809 586
-139.131 14.7461 585
-136.447 14.7115 584
-133.776 14.6772 583
-131.118 14.643 582
-128.473 14.6091 581
-126.058 14.6005 581
-123.647 14.592 581
-121.448 14.6088 582
-119.041 14.6006 582
-116.638 14.5927 582
-114.239 14.5849 582
-112.035 14.6024 583
-109.639 14.5949 583
-107.247 14.5876 583
-104.858 14.5805 583
-102.649 14.5986 584
-100.263 14.5917 584
-98.0477 14.6101 585
-95.6641 14.6036 585
-93.4431 14.6222 586
-91.2171 14.6411 587
-88.9858 14.66 588
-86.7494 14.6791 589
-84.5077 14.6982 590
-82.2606 14.7176 591
-80.1433 14.762 593
-77.8813 14.7817 594
-75.7408 14.8263 596
-73.5867 14.8711 598
-71.5378 14.9409 601
-69.4671 15.0108 604
-67.4856 15.1056 608
-65.3671 15.1758 611
-63.2267 15.246 614
-61.0642 15.3164 617
-58.7847 15.362 619
-56.4911 15.4079 621
-54.1833 15.4538 623
-51.7782 15.4752 624
-49.4459 15.5214 626
-47.1741 15.5926 629
-44.8088 15.6392 631
-42.4961 15.7106 634
-40.1609 15.7822 637
-37.8031 15.854 640
-35.3674 15.9011 642
-32.9681 15.9732 645
-30.546 16.0453 648
-28.1442 16.1425 652
-25.594 16.1655 653
-23.0365 16.1886 654
-20.5032 16.2367 656
-17.9819 16.3097 659
-15.4606 16.4076 663
-12.9275 16.5304 668
-10.3398 16.6286 672
-7.68635 16.6528 673
-5.03269 16.7018 675
-2.36334 16.7511 677
0.321805 16.8005 679
3.03169 16.8996 683
5.76499 16.9741 686
8.547 17.0983 691
11.3526 17.1979 695
14.2106 17.3225 700
17.0844 17.4225 704
19.9905 17.5227 708
22.929 17.6231 712
25.9723 17.7732 718
29.1042 17.9483 725
32.2927 18.1236 732
35.4896 18.2744 738
38.7874 18.4502 745
42.4223 18.7501 757
46.6343 19.2484 777
50.8788 19.6976 795
54.9963 20.0479 809
59.0112 20.3244 820
63.1917 20.6258 832
67.1501 20.8284 840
70.8387 20.9322 844
74.4736 21.0114 847
78.1349 21.0909 850
277.084 66.2026 2666
287.234 66.0971 2661
297.241 65.9673 2655
307.557 65.9128 2652
317.739 65.834 2648
328.147 65.8059 2646
338.166 65.7034 2641
348.815 65.7264 2641
359.203 65.7002 2639
369.728 65.6995 2638
379.823 65.6248 2634
390.343 65.6254 2633
400.41 65.5522 2629
410.928 65.5541 2628
421.451 65.557 2627
431.814 65.5356 2625
442.682 65.5897 2626
452.881 65.5448 2623
463.424 65.5506 2622
473.794 65.532 2620
483.793 65.464 2616
494.153 65.4469 2614
504.32 65.4051 2611
514.084 65.3144 2606
524.63 65.3242 2605
534.568 65.2597 2601
545.12 65.271 2600
555.041 65.2076 2596
565.819 65.2456 2596
576.172 65.234 2594
586.528 65.2233 2592
596.426 65.1628 2588
607.718 65.254 2590
618.092 65.2454 2588
628.228 65.2122 2585
638.113 65.1546 2581
648.488 65.1481 2579
657.335 64.9908 2571
664.838 64.7074 2558
670.932 64.2976 2540
677.971 63.9894 2526
684.368 63.6309 2510
689.545 63.1711 2490
693.169 62.5844 2465
691.75 61.5655 2423
697.819 61.2324 2408
704.665 60.9759 2396
713.821 60.9233 2392
724.178 60.9732 2392
736.403 61.1773 2398
750.263 61.5099 2409
775.3 62.7384 2455
790.521 63.1511 2469
804.269 63.4373 2478
815.165 63.4943 2478
823.424 63.3468 2470
832.656 63.2771 2465
819.971 61.5635 2396
806.01 59.7957 2325
811.11 59.4672 2310
818.595 59.3189 2302
827.119 59.2488 2297
836.722 59.2566 2295
846.708 59.2906 2294
857.09 59.3517 2294
868.638 59.4914 2297
879.864 59.606 2299
893.078 59.8516 2306
905.214 60.0203 2310
916.629 60.1381 2312
926.493 60.1528 2310
936.374 60.1686 2308
946.273 60.1849 2306
954.944 60.1236 2301
963.187 60.0368 2295
971.411 59.9506 2289
982.191 60.0223 2289
991.709 60.0161 2286
1002.11 60.0636 2285
1012.99 60.138 2285
1024.36 60.2397 2286
1034.42 60.2635 2284
1044.5 60.2879 2282
1055.07 60.3399 2281
1064.74 60.3398 2278
1075.36 60.3935 2277
1085.07 60.395 2274
1095.27 60.4238 2272
1105.5 60.4539 2270
1117.72 60.5914 2272
1129.02 60.6764 2272
1140.87 60.7897 2273
1154.29 60.9842 2277
1163.71 60.9658 2273
1171.58 60.8672 2266
1177.87 60.6889 2256
1189.91 60.807 2257
1197.75 60.7106 2250
1210.95 60.885 2253
1219.89 60.8441 2248
1231.02 60.9126 2247
1241.09 60.9278 2244
1250.07 60.8895 2239
1258.49 60.8246 2233
1266.33 60.7332 2226
1271.29 60.506 2214
1277.33 60.3336 2204
1283.91 60.1888 2195
1291.63 60.0992 2188
1299.94 60.0379 2182
1310.04 60.0601 2179
1319.56 60.0556 2175
1329.72 60.0795 2172
1341.14 60.16 2171
1357.6 60.4637 2178
1374.83 60.7971 2186
1400.47 61.4953 2207
1443.06 62.9225 2254
1465.59 63.4612 2269
1465.55 63.0224 2249
1464.7 62.5546 2228
1472.3 62.4519 2220
1490.58 62.8006 2228
1508.36 63.1235 2235
1538.55 63.9581 2260
1556.07 64.2584 2266
1568.21 64.3335 2264
1567.82 63.8975 2244
1569.39 63.5466 2227
1562.3 62.8518 2198
1563.55 62.4992 2181
1570.46 62.3757 2172
1579.53 62.3392 2166
1588.61 62.3037 2160
1599.93 62.3557 2157
1610.56 62.3801 2153
1620.46 62.3765 2148
1633.44 62.4905 2147
1643.43 62.4896 2142
1656.54 62.6068 2141
1669.74 62.7255 2140
1685.38 62.9342 2142
1697.17 62.9975 2139
1705.03 62.9151 2131
1720.95 63.1292 2133
1740.25 63.464 2139
1763.02 63.921 2149
1784.39 64.3217 2157
1802.63 64.6062 2161
1796.65 64.0242 2136
1792.98 63.5306 2114
1791.68 63.1259 2095
1793.67 62.8412 2080
1799.04 62.6774 2069
1812.26 62.7874 2067
1831.75 63.1123 2072
1851.45 63.4407 2077
1879.43 64.0476 2091
1905.02 64.5672 2102
1925.43 64.9063 2107
1935.91 64.909 2101
1945.51 64.8822 2094
1957.94 64.9498 2090
1979.9 65.3307 2096
2005.91 65.8407 2106
2048.54 66.8881 2133
2103.38 68.3213 2172
2144.35 69.2913 2196
2162.25 69.5097 2196
2178.32 69.6673 2194
2192.52 69.7641 2190
2209.86 69.9588 2189
2225.32 70.0926 2186
2239.88 70.1969 2182
2254.55 70.3036 2178
2269.33 70.4128 2174
2283.18 70.4919 2169
2292.89 70.443 2160
2310.12 70.6246 2158
2324.28 70.7111 2153
2340.73 70.8656 2150
2351.84 70.8581 2142
2361.9 70.8192 2133
2369.77 70.7157 2122
2390.05 70.9812 2122
2409.41 71.2171 2121
2432.41 71.5579 2123
2459.16 72.0053 2128
2482.74 72.3563 2130
2501.91 72.5757 2128
2517.73 72.6967 2123
2533.71 72.8212 2118
2547.43 72.8794 2111
2561.27 72.9411 2104
2571.55 72.9012 2094
2591.8 73.1428 2092
2608.55 73.2839 2087
2624.22 73.3934 2081
2634.96 73.3652 2071
3906.75 107.338 2989
3929.1 107.479 2979
3957.02 107.77 2973
3981.26 107.959 2964
4007.16 108.191 2956
4026.54 108.245 2943
4055.79 108.564 2937
4081.26 108.779 2928
4115.51 109.225 2925
4143.16 109.493 2917
4174.05 109.844 2911
4203.95 110.166 2904
4229.9 110.382 2894
4266.55 110.875 2891
4293.35 111.108 2881
4314.52 111.195 2867
4352.7 111.717 2864
4382.3 112.016 2855
4410.82 112.285 2845
4446.06 112.721 2839
4478.73 113.09 2831
4497.56 113.107 2814
-996.066 28.2907 580
-992.146 28.2904 584
-991.648 28.3882 590
-987.813 28.3907 594
-987.326 28.4899 600
-1029.17 29.8161 632
-1145.86 33.3305 711
-1161.25 33.9143 728
-1162.08 34.0764 736
-1159.74 34.1461 742
-1157.42 34.2169 748
-1158.17 34.3797 756
-1161.91 34.6327 766
-1170.05 35.0195 779
-1180.97 35.4931 794
-1190.17 35.9188 808
-1194.78 36.209 819
-1193.48 36.3218 826
-1192.17 36.4352 833
-1189.42 36.5054 839
-1188.09 36.6198 846
-1186.74 36.7349 853
-1184 36.8074 859
-1183.99 36.9659 867
-1182.59 37.0822 874
-1182.51 37.241 882
-1186.37 37.5259 893
-1186.16 37.684 901
-1191.13 38.0087 913
-836.92 27.0639 659
-842.093 27.3534 669
-843.395 27.5193 676
-845.874 27.7251 684
-847.046 27.8899 691
-846.943 28.0139 697
-843.19 28.0179 700
-841.85 28.1023 705
-835.757 28.0282 706
-833.251 28.0742 710
-831.91 28.1602 715
-827.09 28.1285 717
-825.741 28.2152 722
-824.374 28.3021 727
-813.994 28.0789 724
-802.631 27.8196 720
-1190.78 42.0789 1105
-1173.3 41.6648 1098
-1175.13 41.9353 1109
-1163.2 41.7153 1107
-1158.69 41.7607 1112
-1145.93 41.5073 1109
-1145.61 41.7044 1118
-1140.15 41.7153 1122
-1136.72 41.8011 1128
-1134.28 41.9246 1135
-1137.76 42.2691 1148
-1134.24 42.3555 1154
-1136.55 42.6618 1166
-1138.75 42.9671 1178
-1137.96 43.1626 1187
-1137.12 43.3579 1196
-1136.22 43.5528 1205
-1139 43.8917 1218
-1138.88 44.1219 1228
-1137.76 44.3158 1237
-1137.5 44.5453 1247
-1138.07 44.8099 1258
-1143.04 45.2518 1274
-1142.5 45.4793 1284
-1141.9 45.7067 1294
-1142.1 45.969 1305
-1143.09 46.2659 1317
-1139.67 46.387 1324
-1137.08 46.5432 1332
-1131.07 46.5603 1336
-1120.03 46.3695 1334
-1108.25 46.1458 1331
-1099.89 46.0628 1332
-617.346 26.4664 773
-613.785 26.4706 775
-617.449 27.9611 834
-608.492 27.9046 836
-459.217 34.6773 1148
-453.924 34.639 1148
-448.258 34.5709 1147
-443.391 34.5638 1148
-438.15 34.527 1148
-433.302 34.5207 1149
-428.462 34.5149 1150
-423.628 34.5094 1151
-418.802 34.5044 1152
-414.341 34.5298 1154
-409.877 34.5556 1156
-406.111 34.6416 1160
-401.979 34.6978 1163
-398.176 34.7842 1167
-394.688 34.9006 1172
-391.504 35.0471 1178
-389.264 35.2828 1187
-389.871 35.7859 1205
-185.636 17.7131 598
-182.423 17.6389 596
-179.536 17.5947 595
-176.663 17.5508 594
-173.513 17.4776 592
-170.674 17.4342 591
-167.85 17.3911 590
-165.321 17.3778 590
-162.798 17.3646 590
-160.28 17.3517 590
-157.501 17.3095 589
-154.998 17.2971 589
-152.242 17.2555 588
-149.755 17.2435 588
-147.022 17.2024 587
-144.302 17.1615 586
-141.838 17.1502 586
-139.141 17.1098 585
-136.457 17.0696 584
-133.786 17.0298 583
-131.128 16.9902 582
-128.704 16.9799 582
-126.067 16.9407 581
-123.869 16.9601 582
-121.457 16.9505 582
-119.05 16.941 582
-116.646 16.9318 582
-114.443 16.9519 583
-112.043 16.943 583
-109.647 16.9343 583
-107.439 16.9549 584
-105.046 16.9466 584
-102.656 16.9385 584
-100.27 16.9307 584
-98.0547 16.9519 585
-95.671 16.9444 585
-93.4499 16.9661 586
-91.2236 16.9878 587
-88.9922 17.0098 588
-86.7556 17.032 589
-84.5138 17.0542 590
-82.2665 17.0767 591
-80.0139 17.0993 592
-77.8869 17.151 594
-75.7463 17.2028 596
-73.5919 17.2548 598
-71.543 17.3357 601
-69.4721 17.4168 604
-67.4904 17.5269 608
-65.4788 17.6371 612
-63.3342 17.7186 615
-61.2665 17.829 619
-58.8839 17.8532 620
-56.5861 17.9064 622
-54.2741 17.9597 624
-51.8649 17.9844 625
-49.4494 18.0093 626
-47.2524 18.1206 630
-44.8831 18.1747 632
-42.5662 18.2576 635
-40.2899 18.3694 639
-37.8648 18.4239 641
-35.425 18.4786 643
-33.0216 18.5622 646
-30.5954 18.646 649
-28.1462 18.7299 652
-25.5958 18.7566 653
-23.0382 18.7834 654
-20.5359 18.8679 657
-18.0104 18.9526 660
-15.4851 19.0662 664
-12.9478 19.2087 669
-10.3405 19.294 672
-7.68689 19.322 673
-5.03305 19.3789 675
-2.3635 19.436 677
0.321827 19.4934 679
3.03191 19.6083 683
5.7738 19.7235 687
8.55997 19.8676 692
11.3697 19.9832 696
14.2116 20.099 700
17.1099 20.2438 705
19.9919 20.3313 708
22.8984 20.4191 711
25.9379 20.5933 717
29.1062 20.8252 725
32.2508 20.9999 731
35.4921 21.2036 738
38.7381 21.3788 744
42.3133 21.698 755
46.5175 22.2762 775
50.7544 22.7973 793
54.9323 23.2327 808
58.8715 23.5246 818
62.9683 23.8456 829
66.995 24.1095 838
70.7599 24.2586 843
74.479 24.3793 847
78.1404 24.4715 850
287.147 76.6627 2660
297.374 76.5701 2656
307.695 76.5068 2653
318.002 76.4441 2650
328.295 76.3826 2647
338.446 76.2928 2643
349.236 76.3482 2644
359.365 76.26 2640
370.034 76.288 2640
380.427 76.2591 2638
391.112 76.289 2638
401.049 76.175 2633
411.583 76.1775 2632
421.802 76.1228 2629
432.174 76.0981 2627
442.377 76.0452 2624
453.087 76.0799 2624
463.281 76.0285 2621
473.828 76.036 2620
484.013 75.9862 2617
494.188 75.9371 2614
504.356 75.889 2611
514.319 75.8125 2607
524.466 75.7658 2604
534.813 75.7492 2602
545.58 75.7915 2602
555.296 75.6891 2597
566.079 75.7332 2597
576.214 75.6905 2594
586.344 75.6488 2591
596.469 75.6077 2588
607.528 75.6846 2589
617.899 75.6745 2587
628.031 75.6361 2584
638.654 75.6569 2583
648.788 75.6202 2580
658.151 75.4961 2574
665.147 75.1087 2559
672.039 74.7214 2544
678.558 74.3051 2528
684.964 73.8893 2512
690.705 73.4149 2494
691.252 72.4098 2458
691.802 71.434 2423
697.871 71.0474 2408
705.012 70.7792 2397
714.471 70.7479 2394
724.837 70.8062 2394
736.766 71.0132 2399
752.189 71.5474 2415
775.043 72.765 2454
792.182 73.4222 2474
804.655 73.6356 2479
815.886 73.7314 2480
824.154 73.5604 2472
831.706 73.3305 2462
814.9 70.9844 2381
805.032 69.2913 2322
811.875 69.0591 2312
819.014 68.8576 2303
827.903 68.8058 2299
837.516 68.8148 2297
847.511 68.8549 2296
858.651 68.9857 2298
869.462 69.0878 2299
880.698 69.2208 2301
893.922 69.5056 2308
904.893 69.6112 2309
915.511 69.6877 2309
924.961 69.6743 2306
936.447 69.8133 2308
945.937 69.802 2305
955.02 69.7612 2301
963.263 69.6605 2295
972.761 69.6518 2292
981.84 69.6133 2288
992.221 69.6672 2287
1002.63 69.722 2286
1013.07 69.7779 2285
1024 69.8656 2285
1034.96 69.9543 2285
1045.05 69.9829 2283
1055.62 70.043 2282
1065.29 70.043 2279
1075.45 70.0746 2277
1085.16 70.0763 2274
1096.33 70.1717 2274
1106.08 70.1755 2271
1117.82 70.3043 2272
1129.61 70.4342 2273
1141.46 70.5654 2274
1151.85 70.6049 2272
1160.22 70.5208 2266
1167.55 70.3751 2258
1174.32 70.1991 2249
1187.37 70.3982 2252
1196.79 70.38 2248
1207.83 70.4569 2247
1217.82 70.4721 2244
1228.93 70.5514 2243
1237.88 70.5058 2238
1249.06 70.5874 2237
1258.6 70.5754 2233
1265.87 70.4378 2225
1271.39 70.2055 2214
1277.44 70.0053 2204
1284.02 69.8374 2195
1292.33 69.7655 2189
1301.24 69.7263 2184
1311.35 69.7522 2181
1321.5 69.779 2178
1332.28 69.8391 2176
1343.73 69.9328 2175
1358.97 70.2209 2180
1375.58 70.5759 2187
1400.59 71.3536 2207
1445.11 73.1068 2257
1469.59 73.8298 2275
1470.24 73.3533 2256
1467.46 72.7131 2232
1476.41 72.6595 2226
1497.41 73.1953 2238
1563.08 74.889 2276
1569.04 74.6801 2265
1568.66 74.1743 2245
1568.12 73.6679 2225
1561.74 72.895 2197
1565.85 72.6184 2184
1574.22 72.5423 2177
1581.14 72.4002 2168
1590.97 72.3924 2163
1603.05 72.4865 2161
1613.7 72.5153 2157
1622.88 72.4779 2151
1635.12 72.5767 2149
1645.12 72.5757 2144
1657.47 72.6779 2142
1669.9 72.7818 2140
1684.75 72.9899 2141
1696.54 73.0633 2138
1705.2 73.0017 2131
1719.5 73.1815 2131
1733.91 73.3636 2131
1751.71 73.686 2135
1770.5 74.0461 2140
1789.46 74.4094 2145
1788.42 73.9413 2126
1789.77 73.5768 2110
1791.86 73.2468 2095
1794.71 72.9515 2081
1801.83 72.8318 2072
1815.07 72.9599 2070
1834.59 73.3373 2075
1858.77 73.8957 2085
1884.12 74.4944 2096
1908.85 75.0622 2106
1928.37 75.4204 2110
1937.04 75.352 2102
1947.57 75.357 2096
1960.96 75.4715 2093
1982.95 75.9141 2099
2008.98 76.5064 2109
2052.61 77.7585 2137
2105.55 79.3489 2174
2144.59 80.4016 2196
2163.47 80.6918 2197
2178.56 80.8379 2194
2189.76 80.8392 2187
2207.08 81.0652 2186
2221.5 81.1829 2182
2237.05 81.3406 2179
2250.66 81.4267 2174
2267.5 81.628 2172
2280.29 81.6818 2166
2291.03 81.6625 2158
2308.25 81.8733 2156
2323.47 82.0113 2152
2339.92 82.191 2149
2352.12 82.2205 2142
2365.5 82.2912 2136
2374.53 82.2098 2126
2394.84 82.5187 2126
2416.51 82.8708 2127
2441.88 83.3458 2131
2464.08 83.7089 2132
2487.71 84.1169 2134
2505.75 84.333 2131
2520.42 84.4343 2125
2535.23 84.5388 2119
2550.17 84.647 2113
2564.03 84.7187 2106
2576.79 84.7538 2098
2594.62 84.954 2094
2611.39 85.1182 2089
2627.09 85.2458 2083
2637.86 85.2132 2073
2655.13 85.3899 2068
3938.87 125.01 2986
3962.9 125.222 2977
3983.17 125.316 2965
4010.44 125.628 2958
4031.22 125.735 2946
4057.76 126.02 2938
4080.47 126.183 2927
4109.08 126.528 2920
4133.83 126.75 2910
4161.77 127.069 2902
4185.77 127.265 2891
4217.4 127.69 2885
4256.88 128.348 2884
4288.06 128.752 2877
4310.69 128.896 2864
4354.92 129.683 2865
4384.54 130.03 2856
4414.64 130.388 2847
4446.79 130.804 2839
4477.89 131.186 2830
4487.13 130.926 2807
-994.559 32.149 579
-992.352 32.2041 584
-990.171 32.2604 589
-988.013 32.3181 594
-989.17 32.485 601
-1013.08 33.4035 622
-1138.03 37.6741 706
-1159.88 38.5524 727
-1160.73 38.737 735
-1159.96 38.869 742
-1157.63 38.9495 748
-1158.39 39.1346 756
-1160.61 39.3713 765
-1168.76 39.8118 778
-1179.69 40.351 793
-1190.38 40.8865 808
-1194.99 41.2166 819
-1195.13 41.395 827
-1193.8 41.5237 834
-1192.46 41.6528 841
-1191.1 41.7826 848
-1189.72 41.9129 855
-1192.47 42.19 865
-1193.75 42.4175 874
-1200.38 42.8377 887
-1204.16 43.1597 898
-1207.82 43.4803 909
-1214 43.8946 922
-1221.33 44.3542 936
-825.617 30.3853 650
-837.186 30.9493 665
-843.523 31.3242 676
-844.765 31.5124 683
-847.172 31.746 691
-845.853 31.8414 696
-840.904 31.8004 698
-838.389 31.8515 702
-835.879 31.9033 706
-832.197 31.9107 709
-830.864 32.0085 714
-827.207 32.0174 717
-823.57 32.0271 720
-812.982 31.9166 723
-803.857 31.7095 721
-790.422 31.3296 715
-1158.5 46.82 1084
-1154.09 46.8718 1089
-1149.69 46.9244 1094
-1147.38 47.0635 1101
-1145.05 47.2027 1108
-1144.73 47.4271 1117
-1141.31 47.5241 1123
-1141.91 47.7906 1133
-1142.42 48.0564 1143
-1141.87 48.2797 1152
-1145.19 48.6698 1165
-1149.36 49.1003 1179
-1144.69 49.1556 1184
-1149.61 49.6257 1199
-1153.43 50.0527 1213
-1157.11 50.4781 1227
-1163.45 51.0252 1244
-1159.42 51.1204 1250
-1159.05 51.3792 1260
-1155.88 51.5157 1267
-1151.77 51.6119 1273
-1150.35 51.83 1282
-1148.87 52.0479 1291
-1143.8 52.1048 1296
-1140.49 52.2429 1303
-1134.54 52.261 1307
-1129.47 52.3201 1312
-1121.85 52.2606 1314
-1115.11 52.2422 1317
-1107.56 52.1851 1319
-1098.39 52.0506 1319
-1092.59 52.0751 1323
-1094.17 52.4539 1336
-617.416 30.1245 773
-614.646 30.168 776
-664.073 50.2572 1439
-451.657 38.8161 1129
-450.406 39.1165 1139
-445.562 39.108 1140
-441.113 39.1344 1142
-436.662 39.1612 1144
-432.209 39.1884 1146
-427.754 39.216 1148
-423.298 39.244 1150
-418.839 39.2724 1152
-414.736 39.3354 1155
-410.268 39.3647 1157
-406.497 39.4624 1161
-402.36 39.5265 1164
-398.893 39.6586 1169
-395.06 39.7573 1173
-391.87 39.9239 1179
-389.626 40.1922 1188
-389.905 40.7308 1205
-183.479 19.9247 591
-181.827 20.0089 594
-179.25 19.9923 594
-176.381 19.9423 593
-173.528 19.8926 592
-170.689 19.8433 591
-167.865 19.7942 590
-165.335 19.779 590
-162.812 19.764 590
-160.022 19.7159 589
-157.514 19.7014 589
-155.011 19.6873 589
-152.255 19.6399 588
-149.767 19.6262 588
-147.034 19.5794 587
-144.314 19.5329 586
-141.85 19.52 586
-139.153 19.4741 585
-136.469 19.4283 584
-133.797 19.3829 583
-131.364 19.3711 583
-128.715 19.3262 582
-126.295 19.3147 582
-123.879 19.3036 582
-121.467 19.2926 582
-119.06 19.2819 582
-116.656 19.2714 582
-114.453 19.2942 583
-112.053 19.2841 583
-109.656 19.2743 583
-107.448 19.2977 584
-105.054 19.2882 584
-102.665 19.2791 584
-100.278 19.2701 584
-98.0629 19.2943 585
-95.6789 19.2857 585
